31.776983 12.896320 1.519112 
-30.601540 1.653086 9.000000 
-30.188580 14.752968 7.069920 
18.730879 -18.257011 -2.531964 
-35.630623 -16.309113 8.973045 
-37.496117 -24.626055 1.816688 
25.719894 1.113992 -2.237259 
-34.557682 14.220694 8.928139 
-12.115683 -24.748240 0.019362 
37.307507 5.763025 -0.402178 
23.726055 -16.122835 -3.790303 
30.312960 12.552196 1.506598 
-28.028042 1.150819 8.914230 
-29.329979 -10.328335 3.164649 
-21.294756 -12.810579 1.475890 
-32.130352 -16.447824 7.062065 
-25.292171 11.475185 5.217725 
-37.047729 -6.901931 8.952933 
-25.564005 -3.060727 4.990777 
-32.386364 -3.022702 8.879412 
-26.738211 8.469391 8.939447 
-29.964186 -4.564218 8.954528 
-28.170595 21.012449 1.365805 
-24.079414 11.384057 2.936942 
33.809486 14.746176 -0.384412 
18.712889 -14.449306 -2.730253 
-29.297108 -7.019892 3.270347 
-33.501877 -23.040840 7.025832 
-32.799805 -8.827494 8.994616 
-3.597902 18.246199 3.313707 
-20.608173 2.583707 1.806786 
-32.361832 23.444036 5.304666 
-37.384544 -0.923475 5.142566 
27.723852 -24.736975 0.010208 
-22.012793 11.774300 0.914243 
-30.423828 14.134407 8.912807 
-18.882849 15.736788 1.389426 
30.945881 3.003940 -2.534413 
37.495468 -12.653413 -0.161017 
18.467844 -2.377912 -2.281059 
27.262075 11.012280 -0.270118 
-24.117573 14.617846 1.401337 
-25.592192 21.395252 3.574128 
28.598200 -17.999998 -2.414952 
-4.725385 -24.745251 0.018119 
-35.202118 -21.199680 8.888653 
-32.396145 1.162534 8.272451 
30.809837 -10.836552 -2.707800 
19.202545 -24.740341 0.011685 
36.048386 15.192492 -0.380467 
-35.726196 15.750002 8.853989 
23.650217 -22.916277 0.000000 
6.859127 -18.476160 3.437702 
-23.873137 15.670698 3.302439 
-27.226250 -15.994713 1.869877 
25.081989 1.011789 -4.246007 
25.545656 -16.131840 -3.725664 
-25.558311 -4.682850 4.331971 
-35.003853 -22.763420 8.836519 
-32.736809 14.528023 8.367545 
7.568074 8.494057 -0.737246 
15.435295 -15.606682 -1.422661 
11.586252 22.451578 0.339257 
8.098148 2.113532 -0.977694 
-26.108521 -4.339306 5.709114 
-15.287013 -21.059563 0.003543 
29.004442 -11.953898 -4.224089 
-28.395597 14.491616 6.336285 
-28.912628 -13.257707 2.634446 
-34.510399 -19.359976 5.214962 
9.131121 -8.291935 4.988910 
0.075519 -17.124840 0.013549 
-27.268702 12.393756 8.845499 
4.573420 -19.457632 0.007066 
12.192747 5.701211 -1.026535 
5.999651 8.924603 0.171463 
-7.445278 2.197626 0.750389 
-19.476343 4.411472 1.404848 
35.222977 13.965296 -0.349658 
-20.915237 6.994315 2.034013 
35.532936 -14.835323 -0.137089 
27.947069 13.457661 -0.378866 
17.850788 20.980377 0.074081 
-17.275734 -4.236425 1.357802 
-29.804808 2.250000 7.851257 
35.290043 2.256623 -0.303463 
33.462948 -0.868320 -1.445097 
-30.062153 15.871949 4.453696 
-23.570852 20.715925 4.466767 
-20.697565 22.528839 2.905266 
35.705456 -21.814438 -0.038036 
33.723946 -16.432894 -1.422661 
20.921021 -24.740438 0.010995 
27.279066 5.891599 -1.252388 
32.771366 -21.448036 -1.310073 
9.412724 -0.894034 -1.102913 
34.411186 -21.407421 -1.134853 
26.682444 -21.745026 -0.865364 
33.962162 5.209914 -1.472169 
-8.213817 21.877726 0.630461 
-18.715729 -20.617842 0.004875 
32.229481 17.667471 -0.485452 
-35.692471 17.232527 8.970538 
-20.254650 -4.739409 2.692385 
-27.069283 -0.903514 8.531886 
31.036737 -7.427223 -2.418615 
34.617332 0.912516 -0.895748 
-25.611504 15.575081 2.938788 
9.051523 -13.911245 0.019180 
-33.639347 -21.051170 7.118578 
10.392223 -14.787261 0.009754 
17.980642 1.538383 -1.764521 
-32.479992 15.416517 6.609682 
-17.222883 -14.323470 0.603540 
-2.309116 -4.327125 0.130493 
30.914459 -15.037537 -2.644646 
9.465321 -16.204063 0.015656 
24.127766 16.024960 -0.374135 
23.529140 1.214993 -4.136013 
13.647516 -18.721151 -0.004653 
-29.388405 -16.536488 4.013537 
-24.874907 13.740987 3.678986 
-3.105628 17.146217 2.378915 
22.075897 -3.407840 -4.178894 
12.235053 15.058208 -0.347503 
11.095579 -12.333434 0.007639 
2.833364 12.706212 0.833636 
5.543892 -1.335411 0.089399 
27.641850 18.024950 -0.472473 
11.748144 1.943067 -1.052934 
22.038631 -5.900220 -4.148833 
29.221661 -2.402473 -4.023007 
-29.669186 -23.001427 3.205634 
-3.502233 -23.406578 0.007210 
13.078572 -15.272491 0.001677 
29.150045 -5.999696 -4.106633 
-18.934635 10.916930 1.451850 
-33.797112 -17.277485 6.167928 
2.697394 14.592047 0.608234 
-19.726788 6.243114 1.482412 
-8.084423 -10.018047 -0.094196 
-23.841055 5.104456 1.604561 
35.009727 -8.068515 -0.380517 
2.511084 16.183472 0.497642 
-37.239655 17.353201 8.844813 
23.198652 11.980682 -1.420603 
22.049976 -18.692726 -1.766907 
-7.831459 16.741756 3.194138 
33.410381 -22.287270 -0.134509 
-25.472145 9.382252 5.542569 
-17.761209 4.854482 0.674548 
-33.238007 -16.169413 8.551279 
23.788725 -3.444607 -4.246007 
-14.825947 -0.214594 1.092988 
-27.002789 3.546374 8.886152 
34.699818 -11.517243 -0.910488 
-27.924398 -24.750000 0.196105 
4.697609 10.646822 0.700364 
-26.880743 5.696011 8.888067 
-21.429554 -7.610054 3.297706 
9.432571 15.750003 0.630629 
12.202027 3.984697 -1.071067 
23.384003 18.104801 -0.381482 
-26.467306 -24.448450 0.191290 
-3.913813 14.740619 0.489542 
-20.041172 -24.704227 0.044506 
5.274665 -17.872744 0.011318 
26.994419 8.930521 -0.369938 
25.081636 -4.209761 -4.246007 
34.639050 15.993108 -0.415788 
31.759081 -0.340017 -1.689153 
-22.216045 -11.430488 2.130601 
-3.809350 -19.705219 1.833161 
-25.185659 -15.130959 0.012306 
22.437513 1.164665 -2.214134 
-20.520241 9.470573 0.891510 
16.618467 -10.108933 -1.419906 
-32.102493 -7.586682 7.592524 
-1.533414 24.628136 0.661601 
6.763019 12.081885 -0.553540 
36.329742 0.950587 -0.238658 
11.450705 20.831224 0.517207 
-35.146000 -17.109428 6.772477 
-1.102998 21.283260 0.488198 
27.074213 -19.365149 -1.422661 
-25.550247 4.779696 5.740958 
27.054964 -23.330395 0.000000 
29.230122 -24.606024 0.006848 
-14.917747 -12.767281 -0.121531 
-31.093523 15.292749 5.975062 
15.739834 24.664248 0.251587 
-18.127256 -18.779917 -0.053777 
32.848808 19.025370 -0.521840 
24.065720 0.968298 -1.717435 
16.143446 -16.938377 -1.422661 
17.511688 2.957703 -1.561391 
-8.633760 3.031380 1.053146 
6.428516 4.855288 -0.552211 
1.366278 13.422915 0.647994 
-18.969442 18.401413 1.431495 
-26.454878 14.152544 3.992766 
23.326302 20.448647 -0.413360 
-4.390324 -1.645553 0.223857 
-27.802687 -5.382188 4.728446 
-24.999588 1.603085 3.980361 
10.410318 -10.406120 0.009700 
-4.375669 10.447752 0.682636 
-31.126537 -22.726768 4.382763 
8.359818 -20.571014 0.003905 
-17.369555 -15.586987 -0.162561 
13.436097 -4.865924 -1.293806 
-6.236013 3.066494 0.719482 
-37.428322 -23.019930 4.922232 
28.816294 16.558533 1.286512 
-13.912455 -9.090081 0.180080 
-26.237358 11.405180 7.520119 
28.233629 1.182960 -4.175165 
8.667205 13.050099 -0.637316 
16.686062 15.713121 0.043147 
37.473820 10.528908 -0.469310 
4.065688 -19.215807 2.427119 
32.503223 -5.865065 -1.422661 
26.313852 13.138811 -0.854961 
-15.900972 -22.543049 0.000000 
11.256704 -2.916796 -1.197841 
-25.521109 -17.788849 2.308884 
34.271744 18.477905 -0.494099 
18.926100 -21.385994 -1.408762 
-28.305819 14.856380 4.890732 
2.359289 -11.861286 0.027674 
3.440928 -3.264152 0.184628 
-13.331229 18.072849 0.629954 
4.684939 -19.520844 3.788321 
33.707821 -24.705015 0.002140 
-9.687031 -17.886278 0.011888 
-26.119926 -22.935959 1.046006 
-18.745153 22.790813 1.736698 
-25.058727 4.852663 4.311898 
-17.246609 -10.821346 1.433993 
-7.739330 14.283649 0.538371 
36.704041 8.438812 -0.372716 
-35.072620 -0.596280 6.141255 
4.651462 7.293963 0.576728 
-33.775108 -4.263556 8.890224 
-13.084174 5.652996 0.753871 
24.439705 19.407600 -0.432093 
13.873538 2.937392 -1.189407 
-25.089886 16.131601 1.401531 
37.195488 -21.716194 -0.033716 
-28.067047 -12.746862 1.261207 
22.813021 22.649525 -0.429412 
-8.354549 -15.548407 0.018149 
-12.885651 -23.428253 0.023690 
12.126699 -14.037482 0.004539 
-3.379662 24.448860 0.691036 
-16.947117 -6.035924 1.488953 
-32.919094 -18.049448 4.946060 
-32.911694 23.806467 6.650426 
-20.594091 -11.256420 2.325359 
24.502243 12.731663 -1.528358 
-26.907242 21.336040 2.877296 
12.221507 -20.155624 0.004870 
-6.610513 6.312999 0.893133 
28.936245 19.745146 -0.502700 
37.335770 19.271259 -0.582717 
-8.294310 6.738793 0.817369 
-13.301725 -1.549806 1.224431 
13.139203 21.695551 0.422357 
21.017469 15.063560 -0.898131 
37.366280 -23.551218 -0.013028 
-12.747774 -2.853270 0.748453 
1.729901 24.265978 0.565103 
25.033014 -0.655328 -4.246007 
-2.118088 14.933582 0.466302 
-12.880108 -21.921766 0.001117 
-14.602594 16.917276 0.640509 
-3.151212 -17.712761 2.819818 
-22.348778 10.983957 2.389478 
-24.645771 -3.792978 3.416564 
-37.436726 18.901917 8.309614 
3.782678 -10.914757 0.030173 
-6.285872 -24.364647 0.209147 
21.472111 -10.280216 -3.531498 
2.562396 -21.387838 0.001933 
13.443022 -3.275148 -1.250414 
-17.010771 18.919355 0.684221 
-20.319305 -20.530643 -0.004780 
2.434387 -0.685252 0.277010 
-34.419579 -23.803036 6.058416 
18.101030 -9.572126 -1.857336 
22.713348 15.485885 -0.581054 
-11.100924 24.670486 0.877753 
6.867272 -18.923628 1.694696 
22.090378 21.279778 -0.382602 
16.411839 0.938263 -1.371244 
-7.524130 16.012003 4.961548 
-12.041082 -17.752600 0.012344 
-16.731924 20.398590 0.723564 
-7.802005 -8.528327 -0.038581 
35.274494 -6.421307 -0.277111 
23.846897 -21.709812 -0.982645 
6.342835 -18.123934 6.561162 
-15.327613 21.257917 0.748523 
-14.691519 -24.072329 0.032234 
3.929841 24.614828 0.538886 
-4.324800 -17.530159 0.012632 
16.099230 -21.192902 -1.422661 
37.218742 -3.808684 -0.272740 
31.854248 -11.398284 -1.762337 
-6.925733 24.713163 0.787432 
-18.695684 -3.464045 1.801156 
25.453680 10.862069 -1.519562 
20.025610 -10.059716 -2.862233 
-6.997780 -3.069135 0.164623 
-9.310180 11.521679 0.541801 
-0.516224 0.406709 0.309551 
-3.862750 -15.569256 1.880127 
37.229294 -6.211707 -0.240966 
14.287071 -16.048977 -0.392000 
12.867483 13.322451 -0.830407 
-0.343855 14.867994 0.504026 
-33.039146 -1.494406 8.898972 
13.703811 -24.538845 0.049922 
12.575103 -1.883969 -1.174589 
24.489399 5.289236 -1.419750 
18.687090 -16.734035 -2.499738 
26.681583 2.680346 -2.870851 
-13.136348 0.078031 1.121368 
15.839664 18.400314 0.283849 
-5.057919 6.685883 0.912330 
20.154148 -17.225231 -1.959906 
31.524035 1.287240 -1.837353 
15.635416 2.938382 -1.285807 
-19.486458 7.793714 0.967003 
0.596262 1.600525 0.356427 
-11.667713 -1.143376 0.893473 
27.311357 14.949431 -0.438675 
21.267719 -22.500538 0.000000 
-36.429672 -23.454660 6.325054 
-16.169540 -12.028260 0.312358 
17.357109 14.491652 -1.150265 
29.556093 3.454212 -2.765763 
-4.146970 16.091612 2.863897 
-20.355831 10.618983 2.149749 
24.211151 -24.549042 0.009559 
7.332497 16.460424 0.754923 
-32.637768 -14.825739 8.872153 
-37.387833 -5.262188 7.733460 
21.312016 16.544306 -0.233405 
-2.853070 6.464923 0.740213 
-22.636883 -19.614855 -0.030708 
-37.087189 -2.279667 6.222723 
-11.006840 -4.338013 0.400939 
28.081867 -0.791128 -4.246007 
-29.749046 19.418207 1.877711 
-3.249946 3.789104 2.159796 
37.458675 -2.250713 -0.298764 
-32.039188 -14.068284 6.897276 
35.719563 5.469933 -0.137756 
-19.285683 -8.073174 3.028824 
22.057718 4.020687 -2.013310 
-33.035275 -5.672559 8.683249 
-25.233545 -21.721245 0.551411 
-0.777810 -15.778245 0.017221 
33.982361 -6.781279 -1.448710 
28.825663 11.914778 -0.319377 
32.483200 -4.116074 -1.422661 
-27.101894 -5.927750 2.759427 
-26.475855 4.377028 7.314301 
-15.667768 13.416937 0.636465 
20.241385 8.161857 -1.143150 
22.624453 5.377175 -1.366589 
-13.104515 11.374431 0.592642 
-22.619408 -17.898308 -0.031146 
1.184493 16.945997 0.434602 
-15.487626 -8.647443 0.455835 
24.056013 6.760227 -1.295886 
-32.914230 -23.540552 4.994291 
-6.189464 11.500980 0.561672 
13.138965 1.281872 -1.178722 
6.283718 10.571608 0.135282 
-31.571501 -9.447374 6.901127 
5.023161 1.212505 0.353663 
-1.994696 -2.481232 0.199312 
-14.610463 11.647676 0.613790 
-20.072365 16.165079 2.155557 
13.230487 -17.294657 0.001220 
-18.653891 2.596785 0.982237 
-30.723850 -21.831381 5.592938 
25.309164 -1.397428 -2.645812 
14.324621 6.151717 -1.131656 
13.996398 -10.609409 -0.300941 
-15.867332 -14.749381 -0.204099 
-14.090103 -16.206312 -0.087777 
-24.802826 12.325871 4.095394 
26.652409 -0.294943 -4.246007 
-10.619191 -12.876920 -0.206116 
12.169170 -10.889628 0.004411 
-0.847911 -19.506207 0.007154 
10.871030 -24.720715 0.024683 
-12.416793 -9.157814 0.015314 
-12.009030 19.196646 0.618579 
-6.831327 -22.726913 0.000000 
-13.036129 1.552289 1.026628 
10.764894 3.052785 -0.972926 
-6.148595 4.745950 1.067920 
-1.085620 13.157534 0.596268 
-24.715908 8.822033 3.848100 
-29.590382 -15.389731 3.095545 
-10.768291 10.811739 0.556986 
27.281311 -17.461775 -2.870958 
-24.111507 7.990243 2.296096 
19.851576 16.296055 -0.089068 
-7.269672 8.218201 0.748412 
-0.573738 -21.014746 0.003068 
-1.522532 23.144655 0.564203 
-29.071207 24.059319 2.221533 
-24.448435 0.377562 2.619538 
28.995312 -22.736198 0.000000 
8.808429 3.630575 -0.929857 
8.400475 -12.140218 0.015742 
-28.057940 -17.955811 4.963358 
-4.836514 12.118349 0.559046 
-37.393616 20.628067 8.765470 
-25.036699 3.287774 4.159115 
14.414757 12.713320 -0.904037 
15.728061 7.166523 -1.139533 
1.429206 11.774098 0.934784 
0.652125 22.855873 0.496790 
-24.715908 4.745191 2.868783 
-8.948532 8.054623 0.711794 
-3.805165 7.854373 0.870398 
34.601170 24.719503 -0.617609 
-18.980894 19.875448 1.498065 
-14.635003 5.140194 0.743984 
13.724037 -12.161840 -0.036587 
32.040180 4.468097 -1.430939 
1.360575 7.355401 0.570420 
32.631435 -19.965061 -1.422661 
25.356665 24.688648 -0.485111 
21.814512 13.608176 -1.393891 
-32.219162 -24.750004 1.700718 
-5.686036 -16.727619 0.014855 
-23.858311 17.294104 3.765567 
-1.772162 -22.129166 0.000107 
-28.693651 -22.278366 4.045242 
29.369528 -4.548125 -3.888305 
-1.525208 -16.672905 1.238613 
-29.109064 -21.779491 5.369007 
18.650682 -4.395226 -2.460488 
-5.256459 -20.441437 0.004806 
-27.199070 2.445685 7.646957 
17.598213 -17.604261 -1.657022 
11.477522 -16.196850 0.006491 
-31.578350 -6.416241 6.800056 
-29.264961 -8.492351 3.156933 
-7.057749 0.752628 0.549583 
30.173197 -12.796896 -3.281262 
31.983192 -2.013002 -1.593943 
-5.671858 1.578875 0.495384 
-33.459175 24.679504 7.788146 
-30.415909 -19.103893 7.663113 
-2.331655 -15.679046 2.380318 
34.255966 -14.913690 -1.297868 
-34.632847 21.737329 8.663459 
-12.128103 -12.848741 -0.209008 
27.655800 20.591227 -0.490133 
-27.149187 19.483917 1.293726 
-1.983945 -23.972832 0.030217 
6.821942 -17.571001 1.107787 
9.987817 -20.736422 0.003392 
29.458532 17.734232 0.612192 
15.307238 -19.777592 -1.407665 
18.054630 -0.791042 -1.802928 
23.909927 3.658885 -2.485526 
34.218189 -2.553452 -1.354197 
-11.495106 -10.778236 -0.131084 
-3.064620 9.427564 0.787205 
-35.276230 -0.285244 7.596168 
-21.711729 21.341248 3.540832 
23.043072 2.400801 -2.870746 
-20.458485 -23.236168 0.027547 
13.419539 20.040327 0.411681 
-3.858327 -3.343850 0.162680 
-21.854286 24.721497 3.763909 
-21.230898 -14.129010 0.752929 
18.672539 -6.426178 -2.425642 
-34.067631 16.719013 7.769864 
-30.058990 -18.002615 6.398387 
-23.864571 -10.839598 0.655854 
15.224751 20.120867 0.312653 
16.992445 -22.101540 -0.469419 
22.872917 0.284863 -1.070927 
37.358829 21.152617 -0.605740 
-31.179693 20.204262 2.728266 
-11.717748 -7.521833 0.123025 
29.644363 10.681288 -0.273062 
-25.286213 18.482891 3.227015 
-20.801071 0.629180 0.885044 
7.855820 5.017191 -0.868258 
-26.028385 -21.457825 1.795179 
2.060796 5.949327 0.520446 
-11.993792 -5.672523 0.356893 
-16.057951 10.690865 0.627634 
1.064734 -15.989101 0.016577 
-26.678711 -15.172376 0.438440 
23.947615 -0.770154 -1.555248 
17.226494 22.412178 0.124064 
29.492516 21.323496 -0.521399 
-25.555714 7.729919 5.660718 
35.489338 -19.536224 -0.137058 
-13.823522 -7.449683 0.352431 
2.898953 -24.368530 0.018145 
5.811977 17.475824 0.505392 
20.069193 10.971972 -1.190642 
-32.697414 21.996304 4.676415 
-2.363667 -17.202774 0.013437 
-28.530514 -14.979082 1.715452 
35.810326 7.225280 -0.140435 
4.025274 -22.439272 4.612713 
17.742653 -13.866026 -1.716559 
7.231877 -7.374421 -0.285417 
-5.036712 -22.652826 0.000000 
-32.432930 -12.821976 8.079565 
-15.821404 0.939988 0.988442 
25.959698 4.936350 -1.423081 
13.929348 -8.870599 -0.302689 
25.314037 -19.006138 -1.499171 
1.584249 2.757553 0.401624 
-19.768171 -14.671610 0.437487 
28.752846 -10.503957 -4.246007 
-17.829762 21.846117 1.011862 
14.285131 18.603647 0.368356 
-16.304178 5.120913 0.698090 
32.430996 2.911930 -1.422661 
2.507979 -14.359541 0.020920 
37.457806 14.308140 -0.519295 
5.360892 -18.572468 2.785243 
-6.723045 -15.623175 0.017880 
-28.682657 -4.649510 7.536697 
18.192516 4.502154 -1.355824 
31.390448 14.943253 1.247114 
2.848068 23.101980 0.463933 
8.803593 0.577227 -1.042036 
-29.737442 20.883488 2.041110 
-24.384048 6.485532 2.297269 
6.592481 -5.679554 -1.072049 
-11.590811 14.567205 0.589609 
18.184809 6.180959 -1.243430 
-28.984596 -11.668828 2.651448 
26.898239 3.970714 -2.092301 
-27.244371 13.749104 5.408381 
-34.855556 -2.430951 7.093467 
34.894104 -23.615400 0.000000 
6.681248 13.604701 0.121982 
-37.405037 -20.708887 4.885674 
-28.624989 13.650314 8.771376 
-7.727599 12.469397 0.526500 
20.407640 -20.978016 -1.422661 
-24.641367 -8.772799 0.853742 
1.568858 -10.133091 0.032374 
34.799652 -0.837181 -0.695564 
-19.653461 -18.750521 -0.127546 
-9.028011 -4.356144 0.190865 
-31.188526 -5.344929 8.137049 
-27.898399 -17.078724 3.727718 
-16.831520 -20.271940 0.005733 
-0.017481 11.947964 0.706507 
-2.257195 -20.237751 0.005235 
-33.425411 -24.665932 3.129312 
-3.391165 12.455654 0.577567 
-2.094974 1.751449 0.345199 
-25.798838 3.220710 5.548260 
-0.550048 -3.012524 0.183503 
-33.818562 0.299866 8.860336 
1.749555 -2.829003 0.196253 
-22.622463 7.173738 1.447637 
37.019142 -7.885439 -0.214054 
-9.888862 -19.725967 0.006927 
20.209034 6.427158 -1.258413 
-2.021830 3.395468 0.415731 
-7.778205 4.272658 0.995172 
21.321026 -8.795271 -3.379921 
-26.536877 7.418660 7.863346 
21.473110 11.833805 -1.308609 
35.580765 -4.494680 -0.157222 
-37.362831 -17.018757 6.626059 
35.622856 -13.136042 -0.106153 
-26.543804 -1.667480 6.982132 
-26.580515 -6.317194 1.329707 
-20.447708 -0.809140 1.573336 
-13.507494 -20.257362 0.005638 
-9.638011 5.865432 0.837198 
-34.147099 -24.274654 4.655677 
-29.221848 -19.661245 6.944568 
-4.897426 21.125397 0.536452 
-11.315281 -22.865738 0.000000 
-32.527130 -22.287428 5.684039 
-24.715908 3.212229 2.425232 
-10.104345 16.934368 0.582439 
-27.359039 -11.586056 0.310008 
-33.354637 20.800711 5.745971 
23.712343 -1.638013 -4.246007 
7.598943 -2.698735 -1.149011 
-16.205929 -10.117928 0.650759 
-35.670345 18.833612 8.704927 
-26.214773 12.714826 5.781264 
29.165514 2.028335 -3.127184 
-22.415487 -24.616997 0.089377 
-22.440620 -15.187501 0.087356 
-18.633270 -2.041707 1.433749 
21.117439 9.864105 -1.215380 
-16.298632 -24.415373 0.188769 
-25.865963 6.577821 6.686820 
6.901581 -18.867462 0.008565 
5.333566 3.234007 0.341145 
15.621297 22.399733 0.282042 
33.949203 8.340767 -0.188846 
-21.235710 8.714094 2.147689 
-8.484302 -11.587943 -0.153071 
31.159567 21.845812 -0.548808 
33.433857 13.070143 -0.336461 
0.146759 -0.929208 0.262064 
-27.661732 -20.836517 5.126209 
16.905762 -3.051242 -1.415528 
-30.977562 24.730637 2.171755 
30.122957 13.129725 -0.236601 
-36.598167 -17.645555 5.042597 
-18.989809 1.088011 1.122937 
16.229519 -18.600773 -1.422661 
18.911324 14.641586 -1.232927 
-2.553499 11.058040 0.693739 
-36.429565 0.203567 8.756359 
-19.381041 -13.340827 1.161593 
3.858192 -12.515625 0.025846 
18.750000 -12.979076 -2.788148 
1.468882 -13.160006 0.024202 
22.271896 -24.136848 0.000000 
5.246567 -10.445957 0.031380 
5.453769 24.484764 0.496381 
-18.205460 -9.651280 2.106482 
-30.592392 -9.866391 5.233552 
-0.047410 6.454597 0.533568 
18.692905 9.739038 -1.060961 
-2.477751 -18.815952 1.976352 
4.171328 -9.297003 0.034527 
-8.193387 -17.012621 0.014187 
37.098701 2.390813 -0.352674 
28.134600 -20.832180 -1.422661 
-27.964725 -10.563018 1.216572 
-6.334434 -8.705698 -0.041293 
-27.020145 1.718936 6.150155 
34.943184 -16.760008 -0.629125 
7.341583 6.666677 -0.801889 
21.619125 -15.159590 -3.611290 
29.719986 0.601178 -3.367285 
-4.467510 0.290730 0.330926 
-6.475554 -1.256972 0.265770 
-23.796215 1.812438 1.228291 
29.498367 -21.549866 -1.179102 
2.808825 8.348841 0.610789 
-28.189116 -19.601181 5.759589 
37.346954 -17.777899 -0.089499 
3.881942 5.815994 0.520278 
35.689602 22.113264 -0.593392 
-21.270082 3.222811 0.565923 
18.796041 3.282923 -2.837701 
13.926485 22.940098 0.375760 
31.365879 11.802942 -0.314148 
6.149455 -18.066544 5.078517 
-20.013763 12.140505 2.197255 
21.497076 2.862813 -2.856774 
-20.678814 18.099480 2.613954 
-16.194944 22.474289 0.847529 
-11.341081 17.846167 0.603070 
-5.674866 17.686543 0.529000 
34.403229 -13.210433 -1.178376 
-17.168827 13.952215 0.713091 
-30.612900 -17.038641 5.388080 
7.158448 -4.340187 -0.509440 
-18.889977 -11.731510 2.597019 
-25.872652 17.647364 1.355332 
-24.974501 24.735304 4.482265 
-10.373693 9.277601 0.590578 
-15.539636 -4.961988 0.881351 
-3.524205 17.372763 4.656258 
5.548787 11.906873 0.515780 
19.098650 17.639072 -0.024783 
22.310951 0.370268 -4.246007 
-0.203513 -7.797368 0.008138 
-4.778062 -8.814985 -0.041265 
-2.496769 19.674316 0.498029 
18.535727 8.158703 -1.116891 
5.803061 -6.610539 -0.207716 
-26.925150 0.348275 7.382747 
17.014053 8.812851 -1.049622 
17.286068 -4.699180 -1.518103 
11.185348 -21.653046 0.000868 
-24.196629 9.850964 2.712744 
-37.312656 -3.334601 7.491663 
-31.572857 -12.586141 6.482184 
-25.937939 -8.131287 0.455667 
15.184864 -4.781957 -1.404355 
12.412397 -6.921226 -1.071747 
18.024849 16.376722 0.088776 
-14.768685 14.763144 0.631692 
36.860912 -9.373423 -0.190758 
-11.531847 16.229191 0.597306 
32.233665 15.767877 -0.427746 
-2.058962 2.506162 2.156884 
30.335449 -17.999998 -2.826700 
-5.415409 -3.152253 0.165683 
-19.400631 -10.093270 3.278676 
-17.511412 15.852413 0.746582 
9.671974 -7.644522 3.034636 
10.159445 -22.809334 0.000000 
25.569603 22.035324 -0.470105 
-6.085993 13.082896 0.508166 
-24.086605 -24.692682 0.051835 
-33.903301 18.468922 7.138204 
-18.268211 -7.067460 1.738007 
-17.445164 23.703148 1.080936 
-35.584908 -20.598873 7.491199 
30.346962 -9.333987 -3.141087 
28.617369 9.415286 -0.205530 
21.623032 -2.054081 -3.813569 
-6.689517 -11.112568 -0.130884 
31.494289 -12.853797 -2.096992 
25.289936 -17.999998 -2.572607 
18.066099 -23.435486 0.000000 
-13.297379 16.104630 0.619498 
-3.214288 -6.238336 0.057728 
-21.193619 1.890295 -0.139541 
-18.344196 9.141706 1.007542 
19.938791 2.099062 -2.859331 
32.175453 -24.572802 0.000813 
-21.694843 -1.940346 1.586200 
-12.088449 -19.538866 0.007521 
-31.833225 -11.008157 7.199687 
-10.171451 -3.125054 0.447457 
37.397507 16.868584 -0.552073 
13.013595 6.988863 -1.038434 
15.290319 14.843394 -0.786984 
-30.510719 -14.668646 4.536897 
29.129417 -9.031750 -4.123272 
-28.069529 -23.238564 1.975364 
-1.995887 -14.097780 0.021809 
23.986984 14.850127 -1.317248 
-6.736892 10.093385 0.639362 
24.876953 9.186718 -1.423313 
-8.810445 0.443440 0.699625 
-12.318920 -16.034962 -0.019924 
22.690695 -14.062778 -4.246006 
29.377319 16.290867 -0.374305 
-32.796368 16.883839 6.179266 
-16.535837 12.168745 0.658797 
23.070782 -4.827510 -4.246007 
-18.935968 -22.413176 0.000035 
-30.171894 -7.978151 4.467525 
-15.919869 6.709654 0.603801 
4.366660 -0.386503 0.293048 
-7.764866 -24.612986 0.085945 
5.863681 -17.195745 2.167942 
-16.960861 -2.213938 1.164979 
-17.811207 -12.635630 1.887428 
34.886421 4.122499 -0.547874 
6.349905 0.363889 -0.658794 
-15.388999 -6.780435 0.612384 
8.984800 -7.977317 0.013986 
19.888941 4.952217 -1.351876 
25.933306 7.838300 -1.147642 
-16.421074 9.263046 0.623873 
-15.266660 24.184832 0.938853 
-9.669946 1.977385 1.093621 
-0.518057 -24.414162 0.135623 
-8.427396 19.717176 0.574922 
1.200607 -4.323811 0.139756 
-27.117592 -4.008823 7.339621 
15.238914 16.952181 0.320811 
1.075042 -21.011559 0.003010 
-26.994473 12.983423 7.170877 
-27.245369 15.527112 3.566573 
-13.798845 -3.951184 0.737356 
29.163872 -19.254950 -1.422661 
-10.213845 -16.394945 0.015937 
8.768263 7.290785 -0.794868 
10.745449 11.228421 -0.791137 
-5.914808 14.825916 0.517439 
-14.212345 22.885077 0.830216 
-27.656353 24.432884 3.025177 
-27.326315 -8.915512 0.386541 
-20.612808 -9.307501 3.560629 
-32.688499 -11.067145 8.783653 
-4.074731 19.654060 0.518327 
-12.128201 10.186218 0.571392 
-9.654821 -24.334061 0.190691 
-8.833244 -13.371883 -0.087394 
-27.041885 -21.215658 3.676684 
23.919298 -17.411539 -2.870959 
31.119247 -3.435173 -2.313455 
-16.345419 2.417214 0.875865 
5.623825 -19.628155 1.215280 
10.290096 -9.498341 2.322741 
24.119669 -6.045855 -4.246007 
18.483442 -19.383965 -1.422661 
30.396336 -20.132414 -1.422661 
8.946082 14.812317 -0.422472 
10.404099 18.343554 0.581502 
18.093735 -7.779511 -1.847075 
15.447162 11.479061 -0.923225 
-2.478537 0.532657 2.049721 
27.167202 -11.272820 -4.246007 
26.699339 -7.757697 -4.246007 
34.061180 6.585643 -0.366582 
36.477226 12.871866 -0.326261 
-23.022488 12.775421 1.555579 
-22.492073 -13.109630 0.668030 
31.825821 20.423443 -0.548665 
0.592319 4.997239 0.481547 
25.948214 -5.778087 -4.246007 
18.779621 19.264429 -0.004817 
-36.136463 -22.577288 7.655593 
22.052359 -20.439671 -1.422661 
22.073812 8.096966 -1.210595 
-4.500321 1.048065 2.258895 
-27.982594 -3.841914 8.568989 
22.036816 -12.628043 -4.147367 
16.804157 17.278957 0.201778 
-13.783518 -5.496858 0.564534 
-22.791798 -9.810295 1.885798 
17.172028 23.906984 0.108476 
-35.658428 20.515438 8.296335 
29.042053 6.750000 -0.411014 
-15.865779 15.903492 0.651680 
30.834957 6.700285 -0.442623 
-13.685581 -18.424284 0.010597 
16.231520 -13.669519 -1.422661 
-4.508932 -0.526923 1.872792 
-1.593733 -17.082829 2.744849 
1.219862 15.079761 0.534200 
-33.172264 22.236649 6.049684 
-23.387794 3.677855 1.027366 
-6.993446 -20.939001 1.909811 
-22.713377 -23.009966 0.021079 
-19.090412 -16.572062 -0.119484 
32.859795 11.129860 -0.282038 
30.811235 17.068237 1.381729 
31.415035 -19.018038 -1.491512 
20.179520 -6.072558 -2.864714 
2.558276 -16.398748 0.015410 
35.280602 9.130291 -0.202412 
-5.077930 24.075838 0.704482 
10.922496 16.208782 0.559148 
37.258404 24.662973 -0.655250 
-29.060787 16.519625 3.107819 
3.083549 10.293386 0.683140 
35.068951 12.449536 -0.304842 
7.605982 10.842272 -0.651354 
-4.645134 -10.846361 -0.110193 
9.280046 -24.001810 0.012912 
7.008261 -14.110704 0.021409 
-3.989557 -15.911747 0.016990 
-17.994453 6.496403 0.709465 
34.201477 10.463590 -0.251325 
-18.963335 13.521271 1.452945 
-7.681972 14.717119 2.857692 
4.635742 -20.944040 0.003048 
4.809237 16.396500 0.548488 
27.528015 -2.626919 -4.246007 
-33.781502 -1.239054 7.153869 
11.769907 17.428061 0.509331 
34.392609 -18.530560 -1.176564 
5.215294 4.953575 0.451398 
-30.993286 21.812410 2.279480 
25.523169 14.394913 -1.651632 
24.536818 2.338228 -2.870793 
-12.719011 7.273668 0.656928 
14.282459 -13.799532 -0.492226 
-10.891458 7.586780 0.687851 
27.301653 7.101109 -0.088099 
12.520899 -23.361767 0.000000 
29.311747 24.557459 -0.540815 
-33.568451 -3.026834 7.959107 
19.836700 -15.852356 -2.870847 
25.286095 -2.550682 -4.246007 
-17.382221 -21.872332 0.001433 
-20.583054 -2.658392 2.243547 
-0.030619 -12.312115 0.026553 
-3.411782 1.320534 0.995867 
-5.462152 -16.494467 1.477414 
-21.573362 19.681280 3.346331 
-29.159985 -6.237888 4.623053 
-2.946251 -11.029101 -0.015113 
20.305355 12.910568 -1.275356 
-10.616158 4.121660 0.924966 
32.892609 0.581632 -1.431012 
-0.120624 3.548328 0.426314 
4.196550 8.878250 0.633907 
-21.102333 -19.256802 -0.069122 
-32.864361 -20.764887 5.792390 
32.827896 -14.585423 -1.422661 
8.331778 -22.621302 0.000000 
-31.642710 24.489138 3.703220 
-37.461182 -16.409189 8.251480 
-26.251944 -18.662827 3.270711 
23.797276 -19.262432 -1.422661 
-5.861560 16.455297 1.735894 
-24.195824 -12.319723 0.224532 
3.971135 -22.472200 3.016452 
20.458599 -14.424253 -2.872397 
12.475454 -8.101554 0.003490 
-8.998370 -22.991747 0.000000 
11.489754 7.962590 -0.930063 
7.120075 -24.302174 0.021301 
-22.318064 -9.195266 3.154313 
-3.523940 2.881886 0.755528 
16.742161 4.788051 -1.292177 
29.957209 15.308954 1.522876 
-21.726992 -5.540392 3.009059 
-15.618649 -16.250954 -0.155256 
15.218624 -9.276409 -1.368197 
28.367741 22.329092 -0.512145 
25.883793 -20.361231 -1.422661 
-10.104205 -11.381696 -0.149692 
19.096680 -8.304822 -2.856024 
-30.467119 -6.494319 5.682024 
30.796780 -4.979124 -2.724442 
-10.312639 20.361202 0.602574 
27.192574 -15.690516 -4.246007 
21.464941 23.269197 -0.343901 
31.096613 -16.746674 -2.512133 
9.541099 -9.793405 1.087805 
-26.229797 9.027083 7.377452 
7.592141 -1.017935 -1.087153 
35.260868 19.850700 -0.528049 
33.807102 2.333499 -1.461777 
-5.348412 -7.284379 0.013635 
-7.935523 -19.569393 1.712779 
-27.165705 -13.092308 0.115186 
-9.716860 22.009390 0.672605 
-8.715956 -6.944180 0.017396 
-4.166062 22.731220 0.596083 
-20.321712 24.468943 2.993538 
31.811642 13.258184 -0.165658 
6.115708 -2.989366 -0.593491 
-10.293136 -8.820189 -0.055822 
-0.672707 16.546930 0.457309 
7.366777 15.073398 -0.021347 
20.640905 0.774200 -2.921567 
-37.342606 -24.025497 3.493212 
14.344213 7.944404 -1.066145 
6.805134 -22.425798 0.000000 
5.140900 22.442745 0.413374 
20.727859 -3.903744 -2.983495 
-21.269814 4.294511 2.031977 
-30.491959 -11.741478 5.170710 
-2.604966 -15.360287 0.537104 
-32.514561 19.790293 4.954314 
27.476770 24.404163 -0.513514 
-18.590349 -24.251167 0.076538 
26.909403 16.462727 -0.451363 
-3.553132 -21.167934 0.002775 
5.228595 19.080687 0.393589 
33.427559 20.751869 -0.569735 
11.701335 -5.112696 -1.283519 
33.259773 -10.727686 -1.422661 
4.312547 13.153856 0.791717 
-31.569038 18.937042 4.017261 
5.087830 -24.539867 0.118029 
-6.786256 -17.904358 0.011721 
-25.837564 -11.370548 0.001108 
24.582691 -14.432953 -4.246007 
-5.562807 -20.504786 1.857975 
-6.668351 -13.079066 -0.011664 
-29.586880 -24.092617 1.808019 
30.430145 17.463367 -0.493316 
23.944040 -10.022147 -4.246007 
3.352406 18.472120 0.415160 
16.832466 -6.490392 -1.417446 
13.275845 -21.645376 0.000804 
-0.541784 -13.702318 0.022818 
-5.969790 22.307484 0.608559 
29.867191 23.100288 -0.538849 
23.743561 8.206614 -1.317793 
-13.032549 21.644579 0.722661 
-0.806289 -4.667139 0.121881 
10.507729 6.700531 -0.899007 
22.781811 -1.829497 -1.744040 
-30.279036 23.059908 1.732484 
-25.344528 -13.327045 0.006076 
-30.058510 -13.155139 4.249751 
1.296658 18.793213 0.444500 
31.672718 -9.897484 -1.893783 
3.917898 -17.040342 0.013621 
13.600893 24.511774 0.316449 
-7.552527 17.801165 1.069541 
-16.580843 -18.491758 -0.006509 
-2.395098 16.545815 0.480791 
-3.215024 -8.029181 -0.008246 
-1.295746 5.621034 0.499610 
-3.209703 -1.306469 1.330094 
11.944007 -18.640896 0.005088 
-15.139925 -10.992691 0.098397 
-24.193340 -20.272560 0.132711 
17.773590 -15.708957 -1.730603 
-22.322208 0.717315 0.971218 
-18.726721 -0.558249 1.319663 
8.977637 24.693069 0.431432 
22.537651 -9.226682 -4.246007 
0.855020 21.021889 0.461553 
13.842644 15.238219 -0.243315 
12.419110 11.506687 -0.798540 
-14.064524 9.997394 0.596580 
-25.261669 22.933617 4.014409 
26.699341 -12.773453 -4.246007 
34.062168 23.317627 -0.600358 
-7.218716 16.322338 0.978555 
35.222282 -10.184077 -0.284513 
24.394661 -7.645799 -4.246007 
22.218779 24.564486 -0.438915 
22.210867 -16.862186 -2.878789 
32.198013 7.927610 -0.177442 
-26.526106 10.191754 8.660939 
21.031013 -7.309754 -3.165514 
16.413750 -1.483433 -1.404441 
17.891983 11.290282 -1.067548 
20.127378 -2.343738 -2.863344 
-31.490015 -15.873495 5.625998 
-25.115011 -5.508932 2.669036 
-33.524605 22.897709 8.140266 
-26.143368 24.095722 3.756361 
18.808867 0.248570 -2.841911 
-31.532612 16.399521 4.865580 
34.085091 -5.253303 -1.454837 
-25.687160 -1.464486 5.132345 
-7.016973 -20.890223 0.231777 
10.836795 5.123585 -0.942996 
-8.339382 -2.338979 0.341894 
32.396049 6.112959 -0.954279 
36.478348 -11.083566 -0.159573 
-24.288033 -18.696171 0.344466 
10.366455 -8.682952 0.009831 
-32.096024 -23.744617 3.738559 
10.574684 14.753061 -0.594038 
31.255806 -21.637817 -0.982799 
-26.371328 19.776539 2.885664 
12.637136 18.748539 0.458144 
-1.052264 -18.334473 1.859471 
-13.143400 14.396062 0.608811 
-22.932989 -0.255190 1.927830 
15.541168 -24.669764 0.048636 
9.978021 23.129019 0.354330 
-32.414131 -19.158499 5.797729 
-22.790958 8.730062 2.891885 
-12.661383 8.796177 0.569414 
-35.364365 -18.214350 4.461100 
32.886742 -18.406687 -1.422661 
-6.988817 -7.298640 0.008837 
13.107592 16.438896 0.438907 
28.603300 -7.550781 -4.246007 
3.798895 2.920708 0.413403 
4.968498 -21.786449 1.443776 
-14.643717 -2.429215 1.244709 
-33.810612 15.268485 7.581138 
32.278610 -16.085888 -1.474519 
-7.790460 -19.561962 0.089080 
35.908710 11.125589 -0.258083 
10.392832 0.721943 -1.054451 
-22.885139 -7.197069 3.038549 
19.536358 -22.708042 0.000000 
9.999099 8.110253 -0.841309 
6.902740 18.613527 0.460919 
20.938211 -12.681337 -3.065665 
14.763557 -17.492863 -0.900227 
35.308979 -2.893086 -0.276164 
31.093641 23.981991 -0.562399 
-17.921417 12.646564 0.789252 
-11.328436 21.606590 0.682167 
15.221436 4.499670 -1.223108 
-14.506448 19.592329 0.652881 
-25.848293 -16.519239 1.391252 
-14.583672 8.266548 0.592140 
-28.379967 -8.756497 1.888973 
-22.588854 5.178179 0.786824 
-3.153515 4.564730 0.561324 
1.189848 -8.586981 -0.017322 
-22.795887 13.954782 3.012958 
-24.810650 -2.200469 3.507910 
-14.138627 6.730612 0.652752 
19.170300 23.120285 -0.095070 
2.883697 -19.863451 0.006038 
24.508389 23.184277 -0.462737 
-18.477320 -5.014689 1.715571 
-27.129734 22.879320 3.029727 
30.898605 9.837827 -0.248828 
21.237579 18.308899 -0.248300 
2.471840 -7.478549 0.026851 
4.046590 -14.216751 0.021243 
23.323315 0.146941 -2.996722 
6.225645 7.395712 -0.002870 
12.667383 8.979210 -0.962526 
-2.265794 -0.591087 0.268236 
-37.146442 -8.657405 8.261730 
-26.242603 -20.135418 2.654132 
15.722769 13.413086 -1.010213 
-4.576966 -18.247774 2.891482 
-9.863543 18.657360 0.588096 
26.915903 -9.821966 -4.246007 
-10.106828 23.520521 0.780269 
15.835100 9.728781 -0.970201 
15.096057 -12.652751 -1.313606 
-28.453022 -7.255172 2.061769 
4.868939 -15.707219 0.017184 
-14.386736 2.489401 0.926439 
-3.057523 21.642120 0.515294 
-16.795837 17.139103 0.669994 
13.758796 -20.231817 -0.051092 
0.665712 -6.078068 0.073738 
-23.581545 -1.881333 2.695205 
11.566417 24.752689 0.377601 
3.412003 -4.927517 0.123276 
22.119267 -7.763659 -4.213881 
-36.804478 -0.482295 6.783708 
3.891174 21.510479 0.424787 
29.074081 -16.597008 -3.040849 
-13.324102 -10.774322 -0.068341 
8.529103 -4.966769 -0.918653 
15.257868 -3.247853 -1.402234 
3.330331 -18.441858 0.009860 
-23.327732 -3.493073 2.715086 
36.702381 -16.044334 -0.098423 
26.003822 20.006596 -0.462516 
-0.237310 19.581553 0.468345 
-8.968724 13.361553 0.549394 
-4.820018 -12.449703 0.020208 
-6.361649 19.015011 0.544641 
19.482246 20.664726 -0.093381 
-36.413399 -19.560802 4.698398 
-31.186922 -8.170322 6.044019 
-17.520992 -8.365214 1.845412 
-1.561303 9.870901 0.800347 
22.717014 9.616830 -1.305331 
9.286850 5.734785 -0.857849 
29.624355 8.244230 -0.164019 
-11.016336 1.227521 1.105201 
-24.517288 -17.160778 0.910549 
6.102612 15.645535 0.713378 
-5.205617 -5.058071 0.096021 
5.163564 -5.191792 0.098172 
25.403297 17.301453 -0.431016 
9.344645 10.755910 -0.741022 
3.999010 -6.982237 0.049112 
-5.781030 -19.166557 2.718594 
37.446171 22.876215 -0.633159 
14.972185 1.583960 -1.284247 
-29.105232 -5.374516 6.202562 
8.238865 -9.340567 0.016228 
14.903382 -1.782071 -1.360584 
15.537559 -7.686644 -1.422210 
0.180441 -22.551495 0.000000 
9.706816 20.726931 0.400289 
-11.299717 -20.931242 0.003728 
20.326113 24.673754 -0.241616 
-35.834778 -19.966187 5.995519 
25.364182 -22.783131 0.000000 
-32.916553 18.651396 5.890150 
-23.539587 -5.447373 2.530057 
-36.892391 -21.406399 6.762469 
8.474408 -6.741123 -1.307368 
11.072495 13.274854 -0.717711 
-15.923338 -3.561511 1.283487 
-1.678987 8.028996 0.790010 
30.729267 -2.053020 -2.810490 
-37.500000 -10.202001 8.411681 
13.974249 -6.690797 -1.366889 
-18.738787 24.780821 1.989131 
34.108940 -9.176675 -1.432088 
27.803160 -5.274016 -4.246007 
32.704674 22.721540 -0.576877 
9.421972 -2.537911 -1.163442 
8.284803 23.192068 0.376542 
-31.344831 -20.436737 5.927407 
-11.802890 12.566038 0.582166 
17.084614 -11.634974 -1.435910 
28.373854 4.240644 -1.756983 
-28.335485 19.449621 2.658330 
-23.631346 22.308048 4.638593 
-19.719576 -6.670671 3.239070 
-1.282763 -10.999563 0.030149 
15.308490 -0.358011 -1.352459 
-21.599888 15.892996 3.147955 
9.050461 17.280334 0.658585 
28.870090 -15.448646 -4.246007 
-37.370865 14.762756 8.392411 
-26.584232 16.797117 3.145968 
-13.979752 13.082079 0.612936 
25.086721 -11.268791 -4.246007 
3.649218 19.928440 0.419863 
-26.266144 -0.452786 6.175497 
-21.490227 -22.148491 0.000853 
32.642780 -8.368355 -1.422661 
-7.074982 -5.788709 0.064236 
1.112185 -24.375475 0.017815 
-31.960611 20.992451 3.745994 
-17.782871 -17.333370 -0.162717 
23.232212 -11.385639 -4.246007 
8.988378 18.874750 0.538166 
8.177998 -15.314243 0.018111 
-5.638891 8.348908 0.785847 
7.278040 24.609228 0.463846 
-24.754459 -6.821829 1.353581 
20.164927 -19.093487 -1.442946 
-11.358042 6.013281 0.778806 
35.576271 17.141205 -0.443321 
10.072510 -6.912191 -0.890380 
-6.866633 20.741905 0.559959 
-15.329102 3.705162 0.819345 
2.209337 4.339380 0.461524 
14.637453 -22.273024 -0.205620 
30.439369 15.218152 -0.425077 
-9.909587 14.661297 0.568352 
29.121336 5.512902 -1.439809 
-3.883615 16.390400 0.499245 
-1.447645 -6.180417 0.064464 
2.055829 1.250885 0.347348 
-25.029524 17.068588 2.700094 
-6.844112 -17.158731 1.741531 
1.312494 9.882107 0.680732 
-13.522684 3.785587 0.865071 
-1.860145 -18.504311 0.509841 
28.894028 -13.690176 -4.246007 
22.208864 -0.901169 -2.809699 
17.117496 -20.121300 -1.422661 
30.681141 19.407242 -0.525370 
31.916719 -22.950743 0.000000 
6.865031 3.434238 -0.915388 
37.058998 -19.497847 -0.060263 
-21.665861 12.592253 2.935709 
5.363130 20.735151 0.401810 
-27.291403 -7.395994 0.406967 
-8.553457 9.740313 0.611394 
19.149055 -11.544547 -2.861280 
20.667400 21.995502 -0.239886 
-23.232094 19.143881 4.240788 
-13.304335 24.753218 0.932313 
-25.702108 -3.087255 6.591558 
-23.401962 24.929588 4.728453 
6.915571 20.143410 0.377628 
6.509012 1.876626 -0.728542 
9.285610 -19.393261 0.007049 
-28.792425 22.288729 2.058927 
14.138457 9.923073 -0.930905 
-25.380039 6.124998 5.147170 
-10.230363 -0.487905 0.745762 
-13.646728 -14.509405 -0.213733 
29.219517 14.346551 -0.408147 
-3.687476 -14.267219 0.021420 
-21.286524 -17.147635 -0.064511 
5.427241 -8.303233 0.037160 
-28.389795 17.971684 2.737222 
17.085119 19.241764 0.160826 
-26.145748 0.866794 5.137833 
-21.223753 14.266827 2.909164 
-20.785465 -15.630636 -0.077053 
-3.989486 -19.566044 0.159798 
-22.023930 22.802450 3.848608 
11.094715 -1.436125 -1.141608 
-6.563516 15.088551 3.773221 
5.447124 -12.407391 0.026074 
32.910282 -12.677917 -1.422661 
4.736526 14.867109 0.833636 
-30.603022 17.022104 3.470978 
-10.646462 -14.962892 -0.034520 
1.284000 -19.404890 0.007341 
8.438696 -8.859024 3.352818 
-35.747528 -3.603213 8.958256 
13.379274 -0.190653 -1.214060 
9.068702 -7.487943 1.433780 
-2.775922 -12.717550 0.025569 
-25.697529 -9.811886 0.182981 
-24.985466 -0.730347 3.756658 
-30.889042 -23.900764 2.704613 
1.523447 -17.745846 0.011813 
8.628863 -17.447046 0.012332 
29.461906 -0.881995 -3.705453 
22.298433 19.346115 -0.366464 
37.097939 -0.614583 -0.312628 
25.676161 -24.693665 0.032811 
36.341824 -24.689247 0.000000 
1.767013 -23.003948 0.000000 
-15.476475 18.277567 0.658731 
-7.836983 23.403168 0.721961 
23.962719 10.417040 -1.411288 
18.408621 13.028645 -1.162362 
-22.860664 -21.241297 -0.025107 
-10.378065 -5.819761 0.170697 
-30.433712 18.292202 2.633373 
20.574770 3.897796 -2.162624 
-32.473671 -4.365420 8.075146 
-24.690971 -23.003475 0.049910 
-15.249887 -17.722458 -0.010877 
7.053226 -11.540091 0.028351 
35.634937 23.602974 -0.624806 
-19.475986 21.447672 1.967737 
30.923019 5.628752 -1.452813 
-22.391987 17.874607 3.829795 
-7.885782 -0.737616 0.471578 
7.036076 -16.535784 0.014858 
-27.006214 -22.407091 2.722405 
35.784229 -18.012985 -0.019901 
-16.911507 -0.733970 1.068424 
-5.259468 -14.927393 0.019701 
0.161288 -10.661657 0.031003 
-8.986806 -20.950478 0.003583 
-35.043617 -24.695946 3.563356 
-30.049303 -20.834213 6.596593 
-8.652354 16.563030 0.561777 
-33.958202 19.946848 6.840880 
-23.784315 -15.993549 -0.001986 
32.656998 9.334206 -0.239762 
-31.386988 23.308598 2.666653 
6.664650 -9.722637 0.029021 
-8.207504 -17.814072 1.387792 
-22.691219 2.531953 0.303974 
-1.662128 -8.065102 -0.005525 
-2.871476 18.241785 0.495582 
26.694290 23.137699 -0.493700 
20.509890 -0.901054 -2.889277 
-17.345182 7.868324 0.619357 
-26.188202 -2.972789 8.206859 
11.518102 9.917125 -0.878906 
6.723401 -20.790260 0.003379 
16.746485 12.310547 -1.033628 
25.583935 -9.153803 -4.246007 
-23.534304 -14.156837 0.215587 
26.599564 -4.203276 -4.246007 
-3.884975 2.442407 2.258514 
-19.966497 14.537060 2.095644 
-21.528015 -3.956760 2.562169 
-11.321529 2.832770 0.990336 
3.661335 -22.569792 1.499622 
-23.536238 -7.818330 1.812833 
-4.818741 3.636331 0.633580 
26.243523 -14.482647 -4.246007 
8.947514 -10.691689 0.014098 
-7.040620 -18.352083 2.637633 
-0.025965 17.887436 0.456990 
-36.232712 -24.190331 4.868123 
5.342447 -22.594849 0.000000 
6.673174 22.819298 0.395481 
10.338264 -4.256381 -1.236833 
4.110980 -23.407103 0.000000 
-5.413734 -18.818003 0.009198 
24.340771 -12.851324 -4.246007 
-25.332111 -19.837872 1.425600 
-17.571804 0.635960 0.920837 
32.820774 24.408503 -0.590016 
-32.012882 17.856977 4.984160 
-26.925377 18.201241 2.286908 
16.235044 -23.295197 0.000000 
11.887595 0.464074 -1.080609 
8.897645 9.215057 -0.735871 
-11.618533 23.137203 0.788880 
13.750463 4.665286 -1.138356 
2.138757 -6.011287 0.080035 
-8.971907 24.472733 0.817320 
-37.478001 -19.428514 3.385923 
-0.173085 10.358752 0.966308 
-0.324796 8.705717 0.722581 
8.448421 21.582302 0.366233 
-10.353042 12.811237 0.564634 
-24.715908 6.785956 3.717892 
-20.337141 20.166397 2.487509 
